# .PCD v0.7 - Point Cloud Data file format
VERSION 0.7
FIELDS x y z
SIZE 4 4 4
TYPE F F F
COUNT 1 1 1
WIDTH 1463
HEIGHT 1
VIEWPOINT 0 0 0 1 0 0 0
POINTS 1463
DATA ascii
2.6665673 -0.16601039 -0.57472754
2.6610441 -0.1192362 -0.28344822
2.6616361 -0.11572577 -0.28378794
2.6942031 -0.36974129 -0.97300899
2.6609418 -0.16468406 -0.79900283
2.6415753 -0.005223833 -0.75024259
2.6513212 -0.060732473 -0.77099961
2.6642818 -0.26530331 -0.95281643
2.6628695 -0.27530482 -0.72982538
2.6561673 -0.11049687 -0.79850262
2.6543806 -0.1081965 -0.79818714
2.6392851 0.015020165 -0.91994643
2.6460752 -0.019686071 -0.76843607
2.647774 -0.0072323857 -0.78879786
2.6630685 -0.12535441 -0.75718099
2.667768 -0.24960563 -0.76714879
2.7386286 -0.18927214 -0.65487987
2.7289531 -0.10394181 -0.67331105
2.6563752 -0.17646399 -0.75750732
2.6582167 -0.10029331 -0.7793377
2.1173301 1.0697906 -1.1271788
2.6675327 -0.26951829 -0.64072841
2.6632252 -0.14510784 -0.71869111
2.6561217 -0.050690576 -0.70987266
2.6627042 -0.13234054 -0.69068795
2.6611643 -0.13866197 -0.67559069
2.660146 -0.12165642 -0.67572826
2.6720042 -0.26235625 -0.65978163
2.6639581 -0.20423135 -0.65837598
2.6609957 -0.11217383 -0.6501168
2.6694663 -0.2438812 -0.64768416
2.6642795 -0.20707934 -0.65653694
2.6633098 -0.18044707 -0.65393418
2.6619129 -0.16265462 -0.63980526
2.66221 -0.14183885 -0.63873416
2.6636648 0.08768969 -0.58584952
2.6534581 -0.054368652 -0.70882422
2.6529317 -0.055010229 -0.70359242
2.6501009 -0.037552375 -0.70332193
2.6605513 -0.12712692 -0.72294432
2.6579256 -0.13800478 -0.69515616
2.6580279 -0.12592907 -0.6854201
2.6570418 -0.11336155 -0.69494486
2.6570504 -0.13699965 -0.67157835
2.6560783 -0.12398428 -0.67281044
2.6631215 0.087247588 -0.58570629
2.6770396 0.05863281 -0.58250505
2.6625681 -0.22834402 -0.66201824
2.6596246 -0.18118809 -0.65309262
2.6594138 -0.17965156 -0.65295511
2.6573884 -0.12991194 -0.63946354
2.6573501 -0.12484442 -0.64171368
2.658092 -0.17479233 -0.62204105
2.6621277 -0.13437408 -0.62693083
2.9796038 0.73695928 -1.1262844
2.729032 1.1026055 -1.1241971
2.7586029 1.108236 -1.1355513
2.7292171 1.1217887 -1.1367689
2.7609973 1.1167269 -1.1450233
2.790612 1.1774352 -1.1661403
2.8021119 1.1636983 -1.1770637
2.7981093 1.154803 -1.1731205
2.7802882 1.1225536 -1.1450989
2.7233853 1.1048353 -1.1444901
2.7042465 1.1549792 -1.1260378
2.7029772 1.1067237 -1.1396941
2.7234457 1.159915 -1.1594124
2.6948018 1.1253098 -1.1307634
2.6555645 -0.17170255 -0.60628748
2.659178 -0.16020928 -0.6180234
2.657212 -0.16534325 -0.62116206
2.656817 -0.12362813 -0.62577665
2.6561818 -0.091043025 -0.61290652
2.6553161 0.087373182 -0.58500469
2.6539261 0.10011832 -0.58380097
2.6409154 0.043152809 -0.64399207
2.6408348 0.043253716 -0.64366508
2.6354444 0.04499393 -0.65846449
2.6377885 0.033265218 -0.64262563
2.637737 0.033569116 -0.64154977
2.6366036 0.049748357 -0.63617885
2.6379826 0.033100866 -0.63899946
2.6378984 0.049854919 -0.63097131
2.6401079 0.032844178 -0.66199368
2.6710618 -0.26843718 -0.63663763
2.667696 -0.26476344 -0.62906784
2.6566684 -0.16034886 -0.65730649
2.6567259 -0.13515373 -0.65321189
2.6569223 -0.16047156 -0.65217727
2.6582267 -0.10784613 -0.69744074
2.6604326 -0.10926827 -0.63653594
2.6592529 -0.1076165 -0.63214087
2.6547709 -0.1042877 -0.62994611
2.6622493 -0.12878618 0.55921578
2.1322453 -0.32381994 -1.1086774
2.6561306 -0.37761125 -1.1294113
2.7402856 -0.35004517 -1.1112692
2.7359564 -0.27687374 -1.0410453
2.7346241 -0.22492091 -0.92545152
2.7220597 -0.13895887 -0.96629864
2.1235704 0.54947668 -1.1399947
2.0952063 0.67515397 -1.1261742
2.1351366 0.89494199 -1.1285567
2.1257491 0.93015158 -1.1282418
2.1821213 1.0781025 -1.1326025
2.1870997 0.97312653 -1.1347686
2.1949925 1.0795468 -1.1327336
2.6490197 -0.10135165 0.038339302
2.6832201 -0.30138195 -0.83903974
2.6825876 -0.28648505 -0.80888027
2.6776631 -0.29812312 -0.81371862
2.6708601 -0.28190339 -0.75583726
2.9216671 0.57102388 -1.1274832
2.9485037 0.6935764 -1.1551455
2.8591938 0.69560182 -1.1218849
2.8690963 0.7108776 -1.1272918
2.9036779 0.71474653 -1.1331503
2.8729999 0.72893471 -1.1340389
2.8737786 0.72534913 -1.1254318
2.8723912 1.0480871 -1.1716495
2.8741922 1.0575081 -1.1716973
2.8882904 0.68810183 -1.1373125
2.7752845 1.0120987 -1.1269791
2.7112799 0.99590439 -1.1338619
2.771558 1.0442412 -1.1251776
2.7553229 1.0229964 -1.1399385
2.7984903 1.0548805 -1.1467569
2.7528176 1.0222673 -1.1597614
2.797976 1.0640911 -1.1680082
2.7920227 1.0639811 -1.1738315
2.1754866 0.44697621 -1.128141
2.6497698 0.011318739 -0.7589882
2.6478229 0.019476864 -0.76477987
2.6427801 0.046878334 -0.76355481
2.6424639 0.047975756 -0.76319867
2.6635761 -0.15545462 -0.91078734
2.6662605 -0.20583417 -0.97858828
2.6668413 -0.20195645 -0.93642575
2.6573803 -0.079882495 -0.63282794
1.8927165 -0.39339313 -1.1160719
2.6958325 -0.33631119 -0.81140554
2.6565583 0.10605501 -0.81431943
2.3318017 1.133888 -0.62276632
2.6879449 -0.32498381 -0.79429418
2.6894293 -0.30690259 -0.77172863
2.6893451 -0.29737186 -0.77005804
2.6912923 -0.33370945 -0.77655095
2.6900182 -0.33193484 -0.76626658
2.6898627 -0.31819513 -0.75865728
2.6349692 -0.10165355 -0.90834665
2.6912987 -0.31852761 -0.67977011
2.6582806 -0.12929687 0.44798484
2.6969121 -0.33254239 -0.79612082
2.642879 0.015157715 -0.78513664
2.658576 -0.21169393 -0.93555671
2.9460838 0.72488463 -1.1256772
2.9591289 0.7373718 -1.1261271
3.0186048 0.74205661 -1.1608558
2.6633132 -0.16697526 -0.93243527
2.6678517 -0.19040363 -0.91172063
2.643573 0.066977993 -0.61022758
2.6438794 0.066113316 -0.60905379
2.4013517 1.0940921 -0.62063116
2.6612668 -0.18980755 -0.91124547
2.6957955 -0.1207009 0.46065909
2.0894032 0.28643012 -1.1445644
2.0712719 0.38363522 -1.1277146
2.0682633 0.49971166 -1.1396493
2.7169609 -0.025038751 -0.97678429
2.7309358 -0.18393803 -0.71012336
2.0770984 -0.018770708 -1.1199071
2.1275289 0.2713154 -1.1366601
2.2520978 1.0639962 -1.1330873
2.6372285 -0.11163975 0.15695971
2.6370962 -0.110426 0.15893048
2.6374607 -0.091530412 0.16606499
2.645601 -0.091518849 0.09767767
2.6435103 -0.097388469 0.11665788
2.6415653 -0.091294058 0.18989044
2.6401298 -0.11063958 0.25269404
2.6413112 -0.091362134 0.25979218
2.6393795 -0.12261595 0.2752687
2.6398289 -0.12020931 0.27398726
2.6407225 -0.09814702 0.26460665
2.6468003 -0.08802823 0.24385375
2.6491075 -0.082154922 0.24329442
2.6452191 -0.10145766 0.2794086
2.6439226 -0.10313224 0.41975349
2.6133919 -0.1110335 0.41834542
2.7284455 -0.26243567 -0.60312003
2.6483927 -0.10099047 0.2640478
2.6460907 -0.11104634 0.41923913
2.7320004 -0.30426875 -0.60162425
2.6571004 -0.091072671 0.11358489
2.6593714 -0.078795031 0.20887809
2.7039912 0.097607277 -0.60020733
2.6572607 -0.10244936 0.18087311
2.6562302 -0.10957886 0.47869554
2.6668718 -0.23195577 -0.72787094
2.6642754 -0.21373066 -0.69250405
2.664752 -0.23690712 -0.73741692
2.6661084 -0.24501625 -0.73003757
2.6653447 -0.23670709 -0.73002386
2.6600728 -0.2192691 -0.670623
2.6591311 -0.19633284 -0.66318268
2.6590078 -0.18295965 -0.66520625
2.6591525 -0.46131608 -1.1210479
2.959964 0.52850896 -1.1126024
2.6399214 -0.45583448 -1.1037515
2.6508579 -0.42709526 -1.1167121
2.6258864 -0.42126271 -1.1039592
2.6227658 -0.4031384 -1.0990554
2.6378131 -0.40558612 -1.1108268
2.7725701 0.15211578 -1.0928408
2.6649568 -0.12193017 0.35541835
2.6559029 -0.45423242 -1.1236243
2.6419034 -0.39427581 -1.1222435
2.4006417 1.1345664 -0.68292004
2.1908703 0.60463053 -1.1221727
2.6382198 0.034081709 -0.72934896
2.6368079 0.038144734 -0.72185022
2.6472809 -0.098941654 0.024143683
2.4370124 1.0861454 -0.51797736
2.6604011 -0.1317579 -0.64624465
2.3560083 1.1173471 -0.66309875
2.6361387 -0.11409685 0.15909146
2.6359625 -0.094525442 0.17071348
2.6409378 -0.12049819 0.087501287
2.6403124 -0.11126561 0.17344384
2.639421 -0.12005737 0.23304453
2.6560311 -0.12331426 0.23114687
2.6429656 -0.43489149 -1.1049308
2.6379671 -0.10841827 0.062414121
2.1104183 -0.25830787 -1.1130922
2.1158378 -0.024974087 -1.116837
2.1746781 0.22579223 -1.1290559
2.1769776 0.25877556 -1.1337484
2.1791568 0.35807705 -1.1329107
2.2616024 0.58971304 -1.1413126
2.6758699 -0.28028458 -0.61655998
2.6850407 -0.30598676 -0.60047287
2.6887584 -0.27144206 -0.59478593
2.6757023 -0.067105703 -0.5846644
2.6740081 -0.31999868 -0.62456572
2.6762528 -0.32356772 -0.61185396
2.8930151 -0.61135614 -1.1122504
2.8801863 -0.63041675 -1.1112434
2.8682916 -0.60830879 -1.1049978
2.9011261 -0.61677903 -1.1283648
2.64081 -0.51522762 -1.118674
2.8388076 -0.60091746 -1.0944028
2.8680348 -0.56614721 -1.1054524
2.8515654 -0.56013471 -1.110564
2.8426306 -0.5318141 -1.1044153
2.76877 -0.52289528 -1.1186132
2.7906072 -0.58479095 -1.1032444
2.7143874 -0.58067328 -1.1201874
2.7858853 -0.59312385 -1.1014651
2.7488735 -0.56225055 -1.1060789
2.7324028 -0.58445591 -1.1018963
2.7391748 -0.57049239 -1.1015602
2.6541715 -0.52285862 -1.105111
2.6968942 -0.49328849 -1.1064475
2.7180016 -0.50588059 -1.1116779
2.711221 -0.50185001 -1.1142451
2.6971364 -0.5308522 -1.1314274
2.7025466 -0.52328545 -1.1316689
2.6895032 -0.52901393 -1.1315534
2.6551304 -0.53711343 -1.1022714
2.700912 -0.55157441 -1.1040908
2.7016664 -0.54705447 -1.1046227
2.7155101 -0.51767945 -1.1035438
2.6407864 -0.36275956 -1.0777411
2.6562145 -0.47879741 -1.128803
2.8919501 -0.56326258 -1.1193625
2.896194 -0.57371968 -1.1102933
2.8768618 -0.55312335 -1.1076198
2.7895603 -0.51082629 -1.1093079
2.5498974 -0.44146106 -1.1216872
2.5538745 -0.44477984 -1.1071824
2.5753326 -0.53609711 -1.127455
2.500931 -0.50632697 -1.1266813
2.506917 -0.45370534 -1.1262122
2.4658799 -0.4665727 -1.1268985
2.46384 -0.42548075 -1.1264417
2.4485366 -0.48619613 -1.1007968
2.5475962 -0.52113068 -1.1051066
2.5332148 -0.50466603 -1.1044967
2.4853144 -0.46528089 -1.1148907
2.3903463 -0.47448105 -1.1048001
2.5300045 -0.51669294 -1.1065909
2.4036405 -0.45590302 -1.1032724
2.4403849 -0.43521819 -1.0990531
2.438108 -0.43881679 -1.0991253
2.4557436 -0.43351534 -1.1004218
2.4241226 -0.4392128 -1.1077437
2.8445892 1.1563246 -1.1428442
2.6576545 -0.48537245 -1.1243891
2.1433525 -0.3816978 -1.1066287
2.1905625 -0.39772311 -1.1086218
2.2604449 -0.40966475 -1.1085191
2.3240721 -0.411529 -1.1086881
2.3804827 -0.44443133 -1.1263646
2.3796203 -0.45918441 -1.1257941
2.403795 -0.44203967 -1.1237286
2.3561783 -0.44246662 -1.1013119
2.3787351 -0.39457765 -1.1006862
2.3502066 -0.39874014 -1.1190565
2.2940161 -0.45634279 -1.1134363
2.2618847 -0.41639388 -1.1067237
2.2984326 -0.43033111 -1.1228538
2.2000194 -0.42163241 -1.1179307
2.2193029 -0.42476425 -1.1184294
2.1993444 -0.42789039 -1.1205608
2.2080891 -0.40176448 -1.104023
2.2941661 -0.40673327 -1.1259629
2.2616372 -0.37808701 -1.1235243
2.3958313 -0.44651526 -1.1275271
2.1894057 -0.36409235 -1.1218718
2.2046835 -0.37089589 -1.1221617
2.1692228 -0.41459951 -1.1207323
2.2058718 -0.38232303 -1.1218935
2.1395926 -0.37350968 -1.1110967
2.7797296 -0.52127683 -1.1282214
2.0729001 -0.29703468 -1.1091
2.0837402 -0.31392676 -1.1078044
2.0914133 -0.28724882 -1.1070958
2.1112232 -0.40508485 -1.1086714
2.1329844 -0.36712793 -1.1073675
2.152487 -0.41573271 -1.1072677
2.235569 -0.38614023 -1.1078346
2.3439889 -0.43390995 -1.1067657
2.078028 -0.25439167 -1.1101645
2.1139288 -0.3262074 -1.1200068
2.1263378 -0.33976474 -1.1209441
2.1424654 -0.34325564 -1.1186646
2.0891707 -0.37525263 -1.1083585
2.1301949 -0.375402 -1.1203909
2.1208775 -0.40363565 -1.1217769
2.1098244 -0.28687161 -1.122209
2.0859675 -0.33430097 -1.1095837
2.4646657 1.1127168 -0.55222732
2.1003242 -0.27365655 -1.1202227
2.8904843 -0.53509384 -1.1110717
2.0742841 -0.18078616 -1.1243128
2.0563767 -0.12066191 -1.1220558
2.0023916 -0.010598 -1.1188716
2.0160801 -0.078407489 -1.1152836
2.0191193 -0.027874911 -1.118342
2.0180705 -0.098931268 -1.1132066
2.0314877 -0.13831846 -1.1105878
2.071496 -0.22388378 -1.1124939
1.9746917 0.050297819 -1.1236373
1.9894776 0.0034855665 -1.1241789
1.9877559 0.012804803 -1.1243505
1.9791977 0.026064893 -1.1227112
1.9730718 0.1554212 -1.1336559
1.9754024 0.11966212 -1.1286297
2.6423836 -0.12874642 0.39589614
1.9925566 -0.039462239 -1.1195265
1.9804102 0.085299082 -1.1304263
2.0332108 -0.049569685 -1.1182308
1.9258555 0.24735738 -1.1256127
1.943725 0.22827309 -1.1309586
1.9449751 0.16226718 -1.1284525
1.9539883 0.1629076 -1.1298944
1.9478066 0.20022382 -1.1304151
2.9338341 1.4240314 -1.1353153
2.6730199 -0.12052928 0.050720595
2.6604822 -0.11882189 0.041854843
2.6631188 -0.13020007 0.57098109
2.3057163 -0.3840411 -1.1132151
2.6644018 -0.14022979 -0.53421164
2.6655703 -0.14187674 -0.51113987
2.6459475 -0.12534678 0.33374622
2.6557097 -0.11616559 -0.65653133
2.641248 -0.12711337 0.56467712
2.0890474 -0.27859917 -1.1126344
2.6787779 -0.34637004 -0.82685918
2.6844313 -0.38118473 -1.0769393
2.6653032 -0.13086286 0.41089272
1.9215415 -0.5218941 -1.1095992
1.91229 -0.48893479 -1.1094595
2.963444 0.71571827 -1.1288668
2.0328348 -0.14919603 -1.1133573
2.342382 -0.445144 -1.1095842
2.6397681 -0.12739228 0.42626351
2.6531096 -0.11770689 0.14485648
2.6780066 -0.32127312 -0.62538397
2.8431456 -0.87904531 -1.0940208
2.8595583 -0.86784214 -1.0961344
2.8864725 -0.8815496 -1.1034678
2.8864572 -0.89090586 -1.1046939
2.9384975 -0.83385956 -1.1040732
2.9463441 -0.83324665 -1.1039932
2.829035 -0.6870786 -1.1008606
2.8583269 -0.67515516 -1.1054
2.8979588 -0.89394373 -1.1064767
2.9108799 -0.90288907 -1.1072565
2.8995671 -0.69233179 -1.1241736
2.8960199 -0.87842101 -1.1068599
2.8994946 -0.87953055 -1.1085354
2.8826897 -0.68473721 -1.1280427
2.8749933 -0.69561779 -1.1055551
2.8685858 -0.69036061 -1.1046528
2.8519876 -0.68731576 -1.1015487
2.8451467 -0.66006833 -1.0994295
2.8846936 -0.6415807 -1.114472
2.7637603 -0.76051873 -1.1033576
2.840853 -0.62636065 -1.097626
2.8174031 -0.61231446 -1.1014313
2.7620261 -0.79371315 -1.1003307
2.7618268 -0.79448295 -1.1002734
2.8066583 -0.6511144 -1.1067101
2.8134649 -0.65077269 -1.1044575
2.8116155 -0.63331407 -1.1023357
2.6327055 -0.74456131 -1.1025603
2.7240129 -0.72344661 -1.0989788
2.7481158 -0.59184343 -1.1086129
2.713661 -0.82172436 -1.100924
2.688658 -0.75271136 -1.1213393
2.660749 -0.70658255 -1.1209528
2.656482 -0.68507487 -1.1246752
2.6579142 -0.78892726 -1.1198076
2.6550376 -0.79018652 -1.1196874
2.6423554 -0.74550527 -1.1207856
2.7132874 -0.83367741 -1.1026156
2.7230182 -0.80078918 -1.1068466
2.6760621 -0.69302893 -1.1306741
2.7011254 -0.74831563 -1.1266029
2.7565401 -0.65850437 -1.1272253
2.7036469 -0.61757672 -1.1328169
2.6914585 -0.65909243 -1.1294961
2.6341083 -0.78234434 -1.0915259
2.6057751 -0.77807075 -1.0963862
2.6117053 -0.75105065 -1.1009227
2.6969633 -0.77597266 -1.0976058
2.6910453 -0.75240719 -1.098302
2.6598415 -0.80703622 -1.0968579
2.6499479 -0.80202788 -1.0966839
2.6797929 -0.77374911 -1.0963376
2.6471708 -0.74815363 -1.0969331
2.6278422 -0.71757442 -1.1063693
2.6391308 -0.69906884 -1.1020805
2.6903362 -0.71897727 -1.0984421
2.7198205 -0.77550638 -1.0993899
2.705219 -0.7172451 -1.1002142
2.7249658 -0.7223531 -1.0994952
2.7625334 -0.64193761 -1.1016126
2.7508183 -0.61755991 -1.1009505
2.7404442 -0.6417383 -1.1000621
2.6792247 -0.60418886 -1.1025424
2.6998711 -0.58560842 -1.102598
2.7206769 -0.63890749 -1.1058453
2.6303995 -0.75243765 -1.0988141
2.6598349 -0.71257144 -1.099915
2.6648114 -0.68205768 -1.1013969
2.7049282 -0.62836272 -1.100777
2.709162 -0.61269301 -1.1006382
2.7854476 -0.53100538 -1.0854944
2.7441826 -0.79397106 -1.0961626
2.5740769 -0.67755002 -1.1067517
2.5858297 -0.66258782 -1.1052896
2.5906491 -0.63824099 -1.1026769
2.6067624 -0.59427106 -1.1037257
2.6398566 -0.56131822 -1.1032826
2.6274486 -0.64324749 -1.1005453
2.6903787 -0.57467234 -1.1013339
2.6040988 -0.75125587 -1.1011993
2.6163223 -0.69227517 -1.1045048
2.660255 -0.62695312 -1.1010215
2.66605 -0.60876238 -1.1001476
2.5625553 -0.75024855 -1.116978
2.5655999 -0.76439214 -1.1182038
2.6007309 -0.71244717 -1.1242054
2.6443939 -0.63187969 -1.1298572
2.6896822 -0.5830189 -1.1321303
2.5484746 -0.74875253 -1.0961539
2.5557647 -0.72237128 -1.1056846
2.5777111 -0.77694672 -1.0971481
2.6017721 -0.69329399 -1.104146
2.6004174 -0.7114237 -1.1033421
2.6031811 -0.66161841 -1.1006036
2.6040299 -0.59727871 -1.1021572
2.6315308 -0.60033149 -1.0979606
2.6338401 -0.62784958 -1.0986011
2.6404746 -0.66459316 -1.101943
2.6355722 -0.57594562 -1.1034926
2.6450758 -0.62386036 -1.1041979
2.630106 -0.60179275 -1.1022007
2.6433117 -0.36602956 -1.0825969
2.5850441 -0.64060116 -1.1243987
2.5677981 -0.61919284 -1.0989745
2.574913 -0.6212588 -1.1000595
2.600384 -0.55154771 -1.1012527
2.4570549 -0.66290683 -1.1212425
2.5022423 -0.68288231 -1.1226619
2.5328231 -0.69582009 -1.1220446
2.5623887 -0.65590024 -1.1244818
2.5114818 -0.57201004 -1.1245569
2.5283091 -0.5899663 -1.1238152
2.5955849 -0.55826968 -1.1271893
2.5083826 -0.55065763 -1.1252108
2.460994 -0.55420405 -1.1191881
2.4255161 -0.49941617 -1.1235346
2.4014096 -0.54100525 -1.1221718
2.4010334 -0.54174805 -1.1212389
2.5558171 -0.58786112 -1.1272238
2.4472122 -0.66900873 -1.1006495
2.4998963 -0.61177075 -1.0994877
2.4125326 -0.64354223 -1.098547
2.3984225 -0.65026242 -1.0949419
2.4564216 -0.68322116 -1.1172286
2.5221596 -0.64459711 -1.1215187
2.571203 -0.58455199 -1.101203
2.5546591 -0.57911569 -1.1004968
2.362895 -0.66333884 -1.0929353
2.38168 -0.65768367 -1.1183918
2.3929996 -0.6328876 -1.0990077
2.4840233 -0.59617746 -1.0985183
2.4829359 -0.58298075 -1.0983295
2.421067 -0.63700134 -1.1211163
2.453728 -0.60730845 -1.1205075
2.5012805 -0.58042479 -1.1015942
2.3669317 -0.6507684 -1.120819
2.3906832 -0.5456928 -1.1183367
2.4101675 -0.57041913 -1.1034532
2.3984132 -0.5841409 -1.1215973
2.4818811 -0.5533849 -1.1045554
2.5193408 -0.53785247 -1.1054212
2.3951957 -0.53194886 -1.0984213
2.4045646 -0.50482875 -1.1194308
2.3911011 -0.49209443 -1.0993061
2.3974226 -0.63208508 -1.109428
2.382247 -0.58435392 -1.1075535
2.4160655 -0.55178386 -1.106167
2.4199796 -0.52735722 -1.1058283
2.4201634 -0.55565327 -1.1067678
2.475498 -0.51413053 -1.1119745
2.5897009 -0.62607038 -1.1157738
2.0573368 -0.57266432 -1.1082661
2.0882626 -0.53671747 -1.1069787
2.1269438 -0.4773685 -1.1057764
2.1291037 -0.44719097 -1.1055394
2.1329782 -0.51242858 -1.1068465
2.1307602 -0.57421082 -1.1025409
2.1895823 -0.49815091 -1.1069192
2.1788189 -0.56305599 -1.104839
2.2213762 -0.453192 -1.1066895
2.2255874 -0.44222918 -1.1081165
2.2120788 -0.62549222 -1.1034082
2.2560956 -0.55197585 -1.1094781
2.2627692 -0.48834562 -1.1061665
2.2682133 -0.45414579 -1.1080258
2.3263333 -0.49450484 -1.103891
2.3478661 -0.47731885 -1.1039968
2.3792694 -0.50236684 -1.1043199
2.598063 -0.71859509 -1.1259362
2.3813319 -0.53781205 -1.1201937
2.3224633 -0.65557772 -1.1042776
2.3544698 -0.60602576 -1.1150296
2.3602853 -0.57699877 -1.1218766
2.3545856 -0.55815536 -1.1013476
2.3632574 -0.57022607 -1.1021286
2.3081393 -0.6286605 -1.1217275
2.3164086 -0.60601497 -1.0997148
2.3164406 -0.59703892 -1.118288
2.2845495 -0.59242219 -1.1240536
2.2861655 -0.59046018 -1.1224883
2.2853131 -0.55029303 -1.1238801
2.312227 -0.56303161 -1.1039062
2.2680943 -0.58553773 -1.121749
2.3025033 -0.51755857 -1.099919
2.3061035 -0.49467814 -1.1145064
2.3030887 -0.50674164 -1.1246017
2.3160706 -0.47383416 -1.1240559
2.322685 -0.48358595 -1.1242126
2.320919 -0.48439258 -1.1237824
2.3212612 -0.47475761 -1.121884
2.2666726 -0.5454939 -1.1250783
2.2685032 -0.54263735 -1.1218461
2.2864008 -0.51427799 -1.1220679
2.2859647 -0.51249969 -1.1238769
2.2278121 -0.52430946 -1.1210184
2.2844553 -0.48784041 -1.1042429
2.2140889 -0.47088295 -1.1087956
2.2038734 -0.47542635 -1.1232804
2.2122841 -0.44204608 -1.121279
2.2869065 -0.63610679 -1.1236833
2.2536972 -0.63793105 -1.1054728
2.2677894 -0.63955086 -1.1060721
2.2741623 -0.63255501 -1.1266543
2.2501543 -0.58405769 -1.1244016
2.2358854 -0.61691707 -1.1243225
2.2557216 -0.56253988 -1.1058261
2.2472076 -0.60198158 -1.1067661
2.2313192 -0.5587365 -1.1043679
2.1815708 -0.55961186 -1.122712
2.1696005 -0.51213318 -1.1237917
2.1695001 -0.51235938 -1.1235548
2.1913619 -0.4791159 -1.1237913
2.1806989 -0.47045088 -1.1235751
2.1383379 -0.43947133 -1.121099
2.1390171 -0.46929967 -1.1168725
2.1520462 -0.51063132 -1.1235253
2.1715219 -0.44265211 -1.121328
2.0269206 -0.42063248 -1.109575
2.0901723 -0.52766103 -1.1216294
2.0718579 -0.56667221 -1.1190301
2.0970685 -0.58911389 -1.1052817
2.1208842 -0.54237086 -1.1216131
2.1075568 -0.57768261 -1.1214582
2.1096492 -0.58722425 -1.1148336
2.1517146 -0.53198117 -1.1069263
2.1893799 -0.60825473 -1.1246984
2.1749399 -0.57989222 -1.1029993
2.1499248 -0.59507626 -1.1208873
2.160948 -0.55172008 -1.1238186
2.1101184 -0.51326847 -1.1200838
2.1381569 -0.50383723 -1.1224575
2.0372138 -0.47344115 -1.1109198
2.0632346 -0.41921121 -1.108685
2.0822892 -0.37485647 -1.1090935
2.0838296 -0.36261031 -1.1085906
2.0345249 -0.5052526 -1.1077685
2.0733111 -0.45056126 -1.1098561
2.0841727 -0.40639183 -1.1080271
2.0417111 -0.55718732 -1.1056653
2.0984745 -0.49907625 -1.1097945
2.1449041 -0.54656136 -1.1060809
2.1950762 -0.51113451 -1.1095484
2.2382545 -0.58554685 -1.1085188
2.1089995 -0.4284156 -1.1201558
2.104507 -0.39692298 -1.1219841
2.0940931 -0.38041013 -1.1226118
2.032352 -0.5597083 -1.1059735
2.0467527 -0.51801389 -1.1185471
2.0559242 -0.51903886 -1.1192099
2.0546858 -0.48230526 -1.1209493
2.0451279 -0.4570964 -1.1118429
2.1158502 -0.41924909 -1.1073319
2.0394437 -0.44352788 -1.1224209
2.0877743 -0.47779137 -1.123672
2.1054394 -0.44377929 -1.1238898
2.1124041 -0.4533594 -1.1230901
2.0690091 -0.42067966 -1.1208947
2.0819759 -0.39634049 -1.1102011
2.0996821 -0.44563964 -1.1095001
2.2046242 -0.47537249 -1.1086328
2.0606565 -0.31369841 -1.1160342
2.0318518 -0.36715463 -1.1235322
2.0583973 -0.35231856 -1.1232213
2.0633237 -0.32760113 -1.1228606
2.0286 -0.41766107 -1.1238939
2.0119617 -0.34742451 -1.1217325
1.979358 -0.21919003 -1.115754
1.9875411 -0.25291795 -1.1207533
1.9994359 -0.33379787 -1.1219045
2.0182481 -0.33056548 -1.122283
2.0121081 -0.29489249 -1.1160101
2.0339813 -0.28693798 -1.1209236
2.0300384 -0.26241252 -1.1108829
2.0435605 -0.25082839 -1.1216769
2.0239444 -0.12728724 -1.1226791
2.010509 -0.11464314 -1.1232516
1.9872354 -0.12475226 -1.1252788
1.9836671 -0.15824583 -1.1262217
1.9815352 -0.12661459 -1.1249678
2.0413496 -0.17291786 -1.1239785
2.0261557 -0.16864255 -1.123569
1.9840934 -0.19749454 -1.1231978
1.9841651 -0.20480388 -1.1241163
2.0351241 -0.24180765 -1.1210529
2.0384355 -0.21471578 -1.1232556
2.0443854 -0.21451718 -1.1231935
2.0187428 -0.39615494 -1.1238136
2.017689 -0.37137863 -1.1234171
2.0070257 -0.15286341 -1.1103114
1.9705199 -0.14785551 -1.1126803
2.0031741 -0.29558504 -1.1195184
1.9981025 -0.39743429 -1.1084465
2.045934 -0.38867277 -1.1100178
2.0994866 -0.46735319 -1.110927
2.1986096 -0.54664177 -1.1124704
2.754647 -0.50131881 -1.0845902
2.4297748 1.1210353 -0.6689769
1.9841967 -0.15033187 -1.1094458
1.9807181 -0.11891666 -1.1167105
1.984175 -0.14064856 -1.1183754
1.9725134 -0.064819276 -1.1187803
1.9761912 -0.026740318 -1.1170242
1.9687624 0.013070352 -1.1245748
1.9739069 -0.0039737341 -1.1201131
2.6573422 -0.36523324 -1.0668401
2.0071476 -0.42857102 -1.1113266
1.9512587 -0.21637776 -1.1142194
1.9667122 -0.24779744 -1.1230948
1.9717234 -0.24482366 -1.1230365
1.9802541 -0.21183999 -1.1241381
1.9486864 -0.20170794 -1.1115996
1.9455814 -0.17196229 -1.1121228
1.9485013 -0.21869688 -1.1098164
1.9297795 -0.10684604 -1.1182209
1.9540033 -0.1428266 -1.1206628
1.9443462 -0.1410218 -1.1196809
1.955201 -0.1071232 -1.1194413
1.9489905 -0.097543128 -1.1175776
1.9392174 -0.064137138 -1.119101
1.9293201 -0.069271892 -1.117936
1.9294599 -0.045002766 -1.1210063
1.9524219 0.059716105 -1.1281009
1.9645046 0.07863865 -1.1334248
1.954234 0.027942983 -1.1236122
1.9300803 0.1075442 -1.1385134
1.8960524 0.059758615 -1.1257122
1.9120332 0.070676439 -1.1267422
1.9625037 0.11540566 -1.1412891
1.912515 0.025800001 -1.1210178
1.9437566 0.092061199 -1.1368649
1.9117614 0.049265489 -1.1231236
1.9178355 0.21553452 -1.1290227
1.9403336 0.13827129 -1.1345659
1.9193466 0.12228316 -1.1455423
1.9196061 0.16436644 -1.1310474
1.9303293 -0.019963533 -1.1205825
1.9493407 0.020388642 -1.1195185
1.9763982 -0.082362346 -1.118935
2.5188944 -0.62369037 -1.1001641
2.5267262 -0.65441853 -1.1042035
1.9230932 -0.0048797443 -1.1210785
2.6633065 -0.12223431 0.027801258
2.6543386 -0.12250529 0.064232349
2.6706023 -0.1265647 0.10631048
2.655529 -0.12594448 0.049349498
2.6492605 -0.12211909 0.15835114
2.6514649 -0.12475136 0.17052023
2.6536582 -0.12370016 0.1284622
2.1012514 -0.55673903 -1.1101059
2.6582959 -0.12948073 0.12128066
2.6396625 -0.13187551 0.33122504
2.6504126 -0.13194707 0.3212724
1.9405551 -0.13167006 -1.1187423
1.9053513 0.18933824 -1.125147
2.1190007 -0.56199217 -1.1093029
2.2226229 -0.51314384 -1.1145599
2.4083278 -0.62028652 -1.1183919
2.0098174 -0.18978931 -1.1107178
2.6549852 -0.12447144 0.23071739
2.0395591 -0.5307036 -1.107514
1.9948575 -0.46086293 -1.1133485
1.9708745 -0.37097922 -1.1097271
2.0167823 -0.45344815 -1.1237231
1.9903414 -0.53818506 -1.1039402
2.0097094 -0.54052299 -1.1183139
2.0069599 -0.49810627 -1.1203732
1.9897028 -0.49877754 -1.1194588
1.9906127 -0.49384764 -1.1199768
1.9675896 -0.34725818 -1.1230606
1.9585763 -0.32753432 -1.1234636
1.9635946 -0.3090798 -1.1235063
1.9702542 -0.2839514 -1.1212578
1.9863634 -0.43006435 -1.1248108
1.9483829 -0.28669149 -1.118072
1.9144437 -0.1096865 -1.1177387
1.9206092 -0.12539601 -1.1172947
1.9204409 -0.15114288 -1.1189734
1.9225774 -0.20547239 -1.1144629
1.9355856 -0.24316795 -1.1119729
1.8972783 -0.079982236 -1.1159583
1.9034188 -0.059848763 -1.1189967
1.9016513 -0.02364401 -1.1225009
1.8850662 0.029514201 -1.1206162
1.9035875 -0.043958131 -1.1242782
2.6387513 -0.13336217 0.38139114
2.6759706 -0.350647 -0.82950789
1.9667712 -0.29516184 -1.1163517
2.1232657 0.52068102 -1.1427213
2.0027742 -0.52155727 -1.1080194
1.9900837 -0.41184354 -1.1114738
1.9086131 -0.13337488 -1.1224811
1.8882577 -0.012381037 -1.1263281
1.9667367 -0.51655185 -1.1188861
1.962391 -0.49528807 -1.1078824
1.9506034 -0.4779129 -1.1212056
1.9642966 -0.45434004 -1.1229261
1.939607 -0.36148182 -1.1212032
1.9468204 -0.37198859 -1.1237961
1.9342577 -0.40531081 -1.1215224
1.924978 -0.33639821 -1.1122829
1.9347054 -0.27410775 -1.1224617
1.9284176 -0.32075438 -1.1204615
1.926522 -0.31048325 -1.1231067
1.9656429 -0.38810733 -1.1246179
1.965112 -0.43100178 -1.1260586
1.9289783 -0.2944946 -1.1118141
1.9370571 -0.29711378 -1.1182334
1.9175731 -0.33162954 -1.1153947
1.9117697 -0.24890243 -1.1135873
1.9182615 -0.21340251 -1.1198767
1.8788985 -0.096374176 -1.1173824
1.8910055 -0.10021517 -1.1182177
1.8761913 -0.037467245 -1.1221106
1.8785381 0.0084579578 -1.1239597
1.9065053 -0.18425973 -1.1284937
1.8961387 -0.063555978 -1.1205419
1.9220645 -0.20461792 -1.1235871
2.2426369 -0.54054648 -1.117503
2.080055 0.2988075 -1.1394087
2.2800503 0.51450711 -1.1494858
2.7393069 -0.44023165 -1.120994
2.7816591 -0.4370254 -1.0915595
1.9477953 -0.49629611 -1.1067882
1.9280334 -0.46290022 -1.120387
1.9527593 -0.45634258 -1.1240996
1.9535491 -0.43629837 -1.1246424
1.9559885 -0.44366223 -1.1255211
1.9577575 -0.40418822 -1.1282496
2.7122991 0.034944676 -0.84003019
1.9167773 -0.46701837 -1.1156974
1.9126805 -0.34879231 -1.1145529
1.9393367 -0.41251898 -1.1172678
1.9072111 -0.36962897 -1.1152678
1.9288176 -0.36314845 -1.1162282
1.9412781 -0.35885164 -1.1180593
1.9356083 -0.39653543 -1.1187484
1.9102376 -0.25549349 -1.1129293
1.91786 -0.30790779 -1.1181068
1.9332502 -0.4373796 -1.1182402
1.916957 -0.43058962 -1.1151996
1.9160079 -0.28959668 -1.116587
1.9006327 -0.20034826 -1.121024
1.900399 -0.23355405 -1.1176611
1.9053751 -0.23781501 -1.1181273
1.9047017 -0.23842846 -1.1194047
1.900355 -0.3163242 -1.1191448
1.8935295 -0.11668711 -1.1212018
1.8925166 -0.1278791 -1.121762
1.884972 -0.11993752 -1.1213776
1.8869584 -0.14999229 -1.1214781
1.9097574 -0.16936368 -1.121792
1.9016171 -0.16476098 -1.1218127
2.6516809 -0.13084568 0.22037056
1.9039693 -0.48582914 -1.1228803
1.9007473 -0.50374347 -1.1170791
1.8950094 -0.48268661 -1.1167027
1.8943043 -0.45196748 -1.1164769
1.898874 -0.3936998 -1.1188558
1.8969655 -0.47142434 -1.116809
1.8914464 -0.35029602 -1.1186509
1.8931322 -0.35193798 -1.1112419
1.8875893 -0.25951305 -1.12134
1.9168583 -0.38560835 -1.1288872
1.9135135 -0.42210022 -1.1288158
1.9076984 -0.29518452 -1.129027
3.0965884 0.32797495 -1.1113169
3.0789926 0.34279859 -1.1164137
3.0647306 0.33893359 -1.1131775
2.6751094 -0.46691287 -1.105168
2.8148656 0.25462955 -1.1393406
2.8110263 0.25606915 -1.139276
2.7488117 0.25096104 -1.1123692
2.7015288 0.25503418 -1.1102817
2.5808947 0.65520549 -1.1344912
2.5828967 0.68600023 -1.1344121
2.6209772 0.70586765 -1.1272749
2.6465404 0.70335513 -1.14291
2.6392984 0.69622409 -1.1222806
2.6280596 0.71863329 -1.1526775
2.7705364 1.2098497 -1.1339152
2.8123462 1.2381406 -1.1588666
2.1971197 0.5626564 -1.144379
2.2630217 0.51955843 -1.130093
2.2301612 0.52247554 -1.1461221
2.2148407 0.53578043 -1.1523329
2.2330623 0.5532549 -1.1454898
2.4355924 1.1666616 -1.1532179
2.0272267 0.52048504 -1.1188756
2.1649132 0.60100108 -1.1217128
2.6482828 -0.022758983 -0.74102855
2.6607156 -0.07011243 -0.75709045
2.6601672 -0.072356112 -0.75119627
2.6547096 -0.035997845 -0.72978121
2.6496997 0.034298312 -0.78863096
2.8456051 0.19508243 -1.1345719
2.8443503 0.21047002 -1.1307137
3.016284 0.38852403 -1.1182189
2.6492658 -0.061841443 -0.74528527
2.6519206 -0.066975363 -0.72873592
2.6648633 -0.12522525 -0.75309283
2.6620986 -0.098501801 -0.74676514
2.6609116 -0.081477046 -0.74184358
2.6644306 -0.13023485 -0.73601133
2.6609712 -0.081404164 -0.7420426
2.6588376 -0.10876007 -0.7362681
2.6570637 -0.083334111 -0.73973238
2.743212 1.1477317 -1.1259704
2.7806273 1.1795281 -1.1490449
2.6510978 -0.046024315 -0.73035187
2.6535065 -0.059547357 -0.7424829
2.6592817 -0.066542767 -0.7389583
2.6544886 -0.065765515 -0.73435736
2.6402099 0.063565686 -0.80720991
2.6443079 0.065521754 -0.78732848
2.6440301 0.07695026 -0.7849046
2.6437085 0.067851551 -0.77391642
2.6411128 0.079533093 -0.8015458
2.6459596 0.046405416 -0.77820987
2.6389005 0.083376184 -0.81943357
2.6739712 -0.30669573 -0.75772029
2.6571777 0.10826138 -0.79883093
2.6595383 -0.29865718 -0.75125235
2.6821032 -0.41640005 -1.0884595
2.6781824 -0.42251357 -1.0860698
2.6625819 -0.40529382 -1.1006726
2.6463192 -0.40275162 -1.1036618
2.6394544 -0.12212425 0.081974559
2.1028659 0.49832615 -1.1348274
2.6584151 -0.13113359 0.090204477
2.6674283 -0.52088547 -1.1046987
2.6852019 -0.48574492 -1.1059055
2.5838184 -0.39162058 -1.1099588
0.94448131 -0.47813416 -0.36680815
2.6483834 -0.34650731 -1.0205849
2.8772998 -0.91193098 -1.0917404
2.7454615 -0.84963363 -1.1183056
2.6091182 -0.79988962 -1.0969502
2.5989954 -0.8045153 -1.092315
2.7097669 -0.83450353 -1.0987141
2.6386604 -0.80958366 -1.0914693
2.674263 -0.7855767 -1.091733
2.6739867 -0.8194598 -1.0915438
2.6927888 -0.80234635 -1.0917778
2.5436566 -0.78129011 -1.0983143
2.5529611 -0.78015709 -1.0955338
2.3464 -0.69771218 -1.09879
2.3664558 -0.698915 -1.1143478
2.4061532 -0.72650886 -1.0975443
2.4098041 -0.72601956 -1.1131822
2.4826634 -0.75376105 -1.0930313
2.4818311 -0.74804908 -1.0986525
2.1523192 -0.62562591 -1.1034442
2.1532297 -0.61316019 -1.1033814
2.3249075 -0.69347501 -1.1043681
2.4624205 -0.74591136 -1.1086844
2.3449717 -0.7012341 -1.1162668
2.2455857 -0.66134781 -1.1230056
2.2480803 -0.66065919 -1.1173166
2.2483692 -0.66510737 -1.1246464
2.2491934 -0.66557932 -1.1238265
2.2490659 -0.66667336 -1.1243306
2.2496235 -0.66073412 -1.1223743
2.2932289 -0.67376345 -1.1251656
2.2457025 -0.66981971 -1.1047512
2.2440798 -0.66386056 -1.1238573
2.1103127 -0.60751617 -1.1052705
2.1830921 -0.6273064 -1.1234869
2.0513241 -0.57855523 -1.1135157
2.7613368 -0.97403413 -1.0911756
2.7721331 -0.97035235 -1.0925756
2.7820094 -0.94484288 -1.0936142
2.8598678 -1.0324793 -1.0946765
2.8486111 -0.95337236 -1.0916777
2.893189 -1.0474058 -1.10568
2.8320782 -1.0224817 -1.1050274
2.8124006 -1.0224073 -1.1030262
2.7817669 -0.94806558 -1.0970266
2.7664165 -0.97525686 -1.0994331
2.8214822 -0.97581649 -1.102175
2.8719232 -1.0437037 -1.1054147
2.8218694 -1.0070125 -1.1037629
2.8971291 -0.965406 -1.104893
2.9141042 -0.9712109 -1.1054859
2.903296 -0.949471 -1.1053804
2.920074 -0.95395517 -1.1048983
2.7458055 -0.96581686 -1.1158552
2.754513 -0.99712902 -1.1159658
2.7646866 -0.93519378 -1.11572
2.8666534 -1.0250373 -1.116604
2.8440011 -1.0056435 -1.1056123
2.8066549 -0.94048214 -1.0993097
2.7986312 -0.9745329 -1.1037763
2.7249079 -0.9847526 -1.0969177
2.7168968 -0.98116952 -1.0972543
2.7272911 -0.94262218 -1.0984898
2.7400753 -0.9345451 -1.0985088
2.7341316 -0.94160199 -1.0988462
2.8018916 -0.94397831 -1.09874
2.7350295 -0.89291531 -1.113937
2.7311134 -0.91083515 -1.1163939
2.7015026 -0.95699602 -1.0946264
2.7176297 -0.87031704 -1.0949768
2.5804899 -0.86671174 -1.1005931
2.6641746 -0.86504459 -1.0912074
2.6479642 -0.92996305 -1.1163778
2.696234 -0.9415127 -1.1174985
2.6933422 -0.93255985 -1.0984629
2.6504111 -0.95390654 -1.1191643
2.7004418 -0.90678358 -1.0991085
2.6095235 -0.82416445 -1.1140132
2.5876026 -0.8503018 -1.1144388
2.7162144 -0.90234959 -1.1151981
2.6500123 -0.88833356 -1.1178176
2.6295304 -0.92764872 -1.1158527
2.6319873 -0.8278389 -1.1164888
2.6176963 -0.84475869 -1.1153839
2.6883612 -0.84631366 -1.1037828
2.63956 -0.85625696 -1.0959111
2.6252391 -0.85446328 -1.0982499
2.6298668 -0.86590189 -1.0953658
2.6114132 -0.91654265 -1.0965431
2.6160223 -0.89132255 -1.0968999
2.6271863 -0.91381991 -1.0937412
2.6167433 -0.88619494 -1.0980846
2.5711057 -0.86955315 -1.0957869
2.6249888 -0.92639637 -1.0940734
2.5785758 -0.858814 -1.0963423
2.6004686 -0.86066687 -1.0979854
2.5796022 -0.91062033 -1.0980495
2.5351326 -0.88515723 -1.0925714
2.5514843 -0.89364791 -1.099566
2.5908289 -0.8344999 -1.0979593
2.5610585 -0.83304536 -1.0912131
2.6612928 -0.84061199 -1.0926641
2.6716371 -0.9262659 -1.0979624
2.6887119 -0.88850009 -1.097365
2.7024646 -0.8627131 -1.0962222
2.7015212 -0.85762501 -1.0970067
2.6722584 -0.88865918 -1.0898471
2.5281889 -0.83368272 -1.0933095
2.5181303 -0.84481841 -1.1116929
2.5318642 -0.85104531 -1.1148947
2.5058658 -0.86924374 -1.0952895
2.5145528 -0.8888765 -1.093852
2.5180759 -0.82673109 -1.0915897
2.513118 -0.83396173 -1.0909275
2.517662 -0.83234888 -1.0947331
2.5182903 -0.79572988 -1.0924078
2.553498 -0.81049067 -1.0967187
2.5429966 -0.80379999 -1.0955309
2.5222096 -0.77500206 -1.0982311
2.518523 -0.78997958 -1.1150535
2.4857574 -0.86543435 -1.0981433
2.4002326 -0.83220607 -1.098197
2.3734877 -0.79642493 -1.1127018
2.4111791 -0.80610847 -1.1105423
2.4163501 -0.80016619 -1.1117033
2.4211898 -0.85167885 -1.1143523
2.4466119 -0.86073655 -1.0959591
2.4234219 -0.79138434 -1.0963105
2.4122162 -0.76529729 -1.1102066
2.4240925 -0.76296514 -1.0960785
2.3799884 -0.75232285 -1.1087534
2.4151227 -0.75884461 -1.0929185
2.4876647 -0.80106574 -1.0953534
2.4663439 -0.83229923 -1.0946277
2.4791522 -0.7694028 -1.0966779
2.4874027 -0.78680664 -1.1101334
2.3437245 -0.7668519 -1.0916679
2.3450823 -0.76943499 -1.0991789
2.3392534 -0.77134645 -1.1151067
2.3294258 -0.8040356 -1.0991102
2.3492174 -0.80000186 -1.0887111
2.3552542 -0.73643678 -1.1011233
2.3874371 -0.76498574 -1.099954
2.4454517 -0.81876826 -1.0996907
2.4930837 -0.76653868 -1.1059499
2.5041325 -0.83573145 -1.0997468
2.0708196 -0.62735444 -1.1049219
2.0697246 -0.69458354 -1.1011913
2.0795944 -0.67871708 -1.1013439
2.0861268 -0.64864802 -1.1036142
2.0997615 -0.6238488 -1.1045624
2.1186786 -0.6826008 -1.1004691
2.1489518 -0.66576886 -1.1018738
2.1951408 -0.74700636 -1.1009574
2.2111123 -0.72245842 -1.1012018
2.2498996 -0.69567257 -1.1041108
2.3042333 -0.76890767 -1.0984033
2.3146255 -0.70448184 -1.0985841
2.3148546 -0.72780722 -1.110532
2.3236196 -0.75676316 -1.1164511
2.3171511 -0.73128265 -1.1169628
2.2981112 -0.73024762 -1.1170046
2.2999415 -0.76335263 -1.1182162
2.2727752 -0.69985974 -1.1033763
2.2265432 -0.76256061 -1.1022017
2.2500513 -0.75305218 -1.1181469
2.237551 -0.77070194 -1.1207854
2.2137856 -0.69926161 -1.0997803
2.1594756 -0.73237401 -1.1170617
2.1528161 -0.73591959 -1.1184918
2.2450917 -0.73308617 -1.1040474
2.2255716 -0.69984674 -1.1120837
2.2215447 -0.697519 -1.1082458
2.2028747 -0.71362191 -1.1197361
2.2454545 -0.73271048 -1.1044091
2.1859887 -0.68738908 -1.1209778
2.1183093 -0.71627027 -1.1152272
2.154891 -0.6881308 -1.1019746
2.2057371 -0.69240361 -1.1163557
2.2002857 -0.692496 -1.1135187
2.0508814 -0.64548486 -1.1168718
2.0466945 -0.66162896 -1.1152445
2.18467 -0.65312475 -1.1055866
2.1313224 -0.67997634 -1.1196171
2.1263688 -0.67808843 -1.1190252
2.0621891 -0.61007649 -1.1171622
2.0762126 -0.61080319 -1.1193384
2.1386378 -0.63358384 -1.1211747
2.0148261 -0.63480216 -1.1036028
2.0191734 -0.5750491 -1.1161605
2.045013 -0.62531924 -1.1162441
2.0186322 -0.59380651 -1.1075778
1.9900868 -0.60163558 -1.105303
2.0014789 -0.5770691 -1.1165547
2.0224292 -0.66466206 -1.1066573
2.1059825 -0.64099687 -1.1089499
2.0895844 -0.67602348 -1.1052378
2.6578429 -0.13053116 0.067369998
2.2919834 -0.77838004 -1.103808
2.6675639 -0.13431478 0.40633944
2.8414023 -1.0487473 -1.0924709
2.7874465 -1.0242059 -1.0994797
2.8594594 -1.0599523 -1.1041523
2.7080991 -0.98377794 -1.0937678
2.5319545 -0.91425729 -1.0967475
2.6605532 -0.96054167 -1.1008308
2.6052675 -0.94264251 -1.0979301
2.6676185 -0.97416568 -1.0950075
2.5285103 -0.90220284 -1.1175001
2.4959402 -0.89507604 -1.0971947
2.3617094 -0.82994193 -1.1152568
2.3276021 -0.81792933 -1.1187519
2.3845603 -0.84454465 -1.0941212
2.141274 -0.73944187 -1.1002423
2.2791789 -0.79904872 -1.1194329
2.0365572 -0.68783033 -1.1152604
2.1020348 -0.72397363 -1.1163282
1.9686067 -0.61332035 -1.1063507
1.9587336 -0.64513505 -1.1023631
2.0045919 -0.66666162 -1.1152487
1.9707189 -0.60928482 -1.1154342
1.9669584 -0.59314418 -1.1147338
1.9762973 -0.56628978 -1.1156173
2.0068171 -0.6257953 -1.1157793
1.9712555 -0.61992472 -1.1050093
1.9738815 -0.54624856 -1.1175208
1.9613501 -0.6611557 -1.1025374
1.9899759 -0.64508235 -1.1183939
1.9692366 -0.61838228 -1.117754
1.9423999 -0.64799523 -1.1048374
1.9138173 -0.56417513 -1.1196016
1.9563807 -0.58842802 -1.119992
1.9640821 -0.55070317 -1.1208723
1.940755 -0.54339105 -1.1205335
1.9379205 -0.53590524 -1.1189297
1.9422433 -0.58658826 -1.1070203
1.9116621 -0.59622699 -1.1212871
2.6550052 -0.13309944 0.10000565
1.9084404 -0.56385088 -1.1254185
2.7012172 -0.13210936 0.50309283
1.9075249 -0.61916757 -1.1090235
1.9411232 -0.61658084 -1.1086504
1.9225131 -0.56579238 -1.1121798
2.1621673 0.19492637 -1.1283547
2.1539743 0.48136511 -1.1510868
2.342519 0.55938637 -1.1404589
2.7200069 -0.29314259 -0.58498102
2.6860826 0.040593706 -0.58108342
2.6713898 -0.29724923 -0.64832002
2.6717613 -0.28842139 -0.62179202
2.6790447 -0.07172028 -0.57422853
2.6737378 -0.29355809 -0.61524475
2.710856 -0.34579626 -0.58377486
2.698158 -0.30663824 -0.58693355
2.7063458 0.079714671 -0.59082788
2.705127 0.085359842 -0.59099996
2.7255502 -0.3022801 -0.6015349
2.7302873 -0.2795068 -0.59389621
2.7521844 -0.35375622 -0.59432375
2.0576575 0.20128062 -1.1332577
2.6838892 -0.30536333 -0.84635663
2.6838384 -0.30192563 -0.84239608
2.6843731 -0.26647931 -0.84107077
2.6832805 -0.27087489 -0.79992342
2.6830924 -0.26604012 -0.80016738
2.6690712 -0.18582658 -0.75604945
2.6670067 -0.16446583 -0.75202221
2.6701047 -0.23372869 -0.75127131
2.6669831 -0.20964427 -0.74726981
2.6659257 -0.16357356 -0.73769981
2.665107 -0.20604719 -0.72468287
2.663388 -0.11465308 -0.71333975
2.6530745 -0.027754083 -0.69946915
2.6715178 -0.26429585 -0.72038531
2.6633518 -0.12123106 -0.70903605
2.6706381 -0.25761664 -0.70143515
2.6471963 0.012338863 -0.67652625
2.6701779 -0.23894471 -0.65557539
2.6485782 0.063832141 -0.6051299
2.6640539 -0.077341653 -0.60415405
2.6609917 0.039111797 -0.59279984
2.6685846 0.039945811 -0.58728957
2.6787171 0.072808452 -0.58234972
2.6634715 -0.20908725 -0.75597614
2.6622486 -0.15606643 -0.74972767
2.6675415 -0.25305143 -0.75432283
2.6644659 -0.22432216 -0.75104523
2.6635556 -0.1830145 -0.7368505
2.6671104 -0.25670129 -0.70146084
2.6673148 -0.26168638 -0.68077296
2.6677034 -0.26084518 -0.685458
2.6684654 -0.26380387 -0.67727542
2.6671867 -0.25840959 -0.67426199
2.6760719 -0.30360773 -0.86482632
2.6735237 -0.27517608 -0.86470509
2.6814382 -0.2613292 -0.84270549
2.6786993 -0.31607515 -0.92081457
2.6772799 -0.30252108 -0.91112113
3.0876796 0.24590389 -1.1065422
2.6607285 -0.021329392 -0.8192538
3.0605752 0.25784779 -1.111326
3.0394895 0.23227783 -1.1100087
2.9189346 0.53896594 -1.1291971
2.9832966 0.76075262 -1.1401249
2.7290602 -0.20418029 -0.83830476
2.7032461 -0.30380321 -1.1029018
2.7102835 0.038959175 -1.027366
2.7156596 0.11021022 -1.0136102
2.9407501 0.54434437 -1.1291066
2.7569232 -0.47483829 -1.114982
2.7105904 -0.22265759 -1.0466608
2.6925092 0.037564978 -0.97822082
2.7200696 0.11434873 -0.98156905
2.7043922 -0.074161775 -0.97231287
2.6853347 0.040475961 -0.93680763
2.7067986 -0.12706845 -0.95559734
2.6779933 -0.3349044 -0.93498296
3.0711956 0.82763225 -1.1361222
2.761668 0.793724 -1.1395619
2.7561493 0.8455984 -1.1263052
2.7480536 0.8085832 -1.1403896
2.7734919 0.85830659 -1.1584405
2.8072395 0.82598782 -1.1591818
2.6988354 0.20031025 -1.1295571
2.7224014 -0.31891745 -0.64168912
2.7728004 0.79175586 -1.1480956
2.7003407 0.81617248 -1.1307788
2.6772306 0.79201841 -1.1321086
2.66785 0.79207438 -1.1387863
2.7191849 0.85341436 -1.1316916
2.6736825 0.82868594 -1.1392907
2.7370336 0.88297826 -1.1386851
2.7229259 0.84191215 -1.1417568
2.7403755 0.79694313 -1.1696209
2.7184753 0.80304372 -1.1406953
2.7841723 0.7941612 -1.1692219
2.7423592 1.2121985 -1.1486436
2.8160229 1.359544 -1.124951
0.77235192 -0.45723891 -0.071909487
2.8101351 1.372725 -1.1377444
2.8953207 1.383041 -1.1602561
2.7803845 0.85554051 -1.1670876
2.7712834 1.2075762 -1.1755576
2.7729666 1.2065704 -1.1753318
2.227704 0.50390637 -1.1350437
2.1756251 0.47566366 -1.1436129
2.6550336 -0.10810573 -0.58849013
2.7297885 1.1913841 -1.1700608
2.0727661 0.45576534 -1.1258864
1.9801887 0.25502002 -1.1315114
2.6514986 1.1858648 -1.1331581
3.0255623 0.37913671 -1.1182122
2.1686594 0.49869427 -1.1323322
2.7283359 1.2622063 -1.1479291
2.713515 1.2446845 -1.1418217
2.7025192 1.2155976 -1.1463792
2.7357852 1.2470315 -1.1479456
2.7380335 1.2485763 -1.1491638
2.7514114 1.2432563 -1.1530925
2.7767885 1.296187 -1.1548119
2.8040569 1.2950292 -1.16821
2.8143737 1.2741495 -1.1739681
2.8259463 1.2876447 -1.1739261
2.1663964 0.50093442 -1.12656
2.6859152 -0.35226724 -0.92012894
2.684845 -0.34830591 -0.95419538
2.638567 -0.13367517 0.35585982
2.6626117 -0.13710493 0.3440854
2.6673374 -0.13632792 0.35235596
2.6872621 -0.31713367 -0.59140289
3.1016262 0.35852289 -1.1135862
2.7551386 0.20874944 -1.1316168
2.7340832 0.22852562 -1.1330372
2.7752852 1.2083493 -1.1531812
2.6956968 1.2908452 -1.1347493
2.2047217 0.50148553 -1.1300794
2.2357335 0.54577458 -1.1290668
2.2701168 0.5408048 -1.1446202
2.1807647 0.56838244 -1.1293402
2.1766119 0.54721904 -1.1367428
2.1628976 0.55031544 -1.1314393
2.1549397 0.54288292 -1.1306005
3.0991304 0.39213443 -1.1378846
3.1037896 0.3885276 -1.1182177
3.0651693 0.36806643 -1.1220032
2.1750426 0.51661402 -1.1332041
2.7260036 1.2637796 -1.1413406
2.1767669 0.54872733 -1.1349105
2.800199 0.18297434 -1.1084243
2.0827727 0.49229553 -1.1237532
2.6577063 -0.1327567 0.08729656
2.6934566 -0.38079771 -0.96339959
1.9071299 -0.63504452 -1.1075304
1.4872949 -0.62220734 -0.73712248
1.5146654 -0.61912787 -0.76396006
2.6612253 -0.13350853 0.047552068
2.6606376 -0.13282652 0.053976163
2.2041895 -1.0204958 -1.1029149
2.7113078 -1.1028305 -1.0903505
2.8059206 -1.1282301 -1.0932784
2.8281538 -1.060881 -1.0924003
2.8651509 -1.2012143 -1.0934099
2.8807516 -1.1293129 -1.0940126
2.8917902 -1.1011775 -1.0931373
2.7716103 -1.1172636 -1.0919107
2.7604728 -1.0453979 -1.0914892
2.7840755 -1.055194 -1.0907528
2.8134642 -1.0950286 -1.0917499
2.8707838 -1.1571944 -1.1040989
2.8095253 -1.1787897 -1.1044065
2.8590765 -1.1974699 -1.1034678
2.8500235 -1.0983739 -1.1055399
2.8340774 -1.1057954 -1.1092137
2.7486818 -1.1276644 -1.0994343
2.7121947 -1.0236754 -1.0989575
2.7044539 -1.0575664 -1.100612
2.7114537 -1.1083734 -1.0994922
2.7486706 -1.1647596 -1.1018715
2.7600274 -1.1470168 -1.1008215
2.7889555 -1.0509797 -1.1023077
2.7177389 -1.0878512 -1.1002911
2.675776 -1.1131299 -1.0990973
2.850507 -1.0769891 -1.1041145
2.8545654 -1.1170008 -1.1173886
2.8698275 -1.1037909 -1.104993
2.8508439 -1.1773995 -1.1154571
2.8447688 -1.1187074 -1.1073653
2.7338591 -1.0089281 -1.1163319
2.8030908 -1.0774492 -1.1043241
2.8058341 -1.0545237 -1.1039774
2.8191681 -1.053086 -1.1049805
2.8036342 -1.0949624 -1.1057788
2.7334528 -1.1153089 -1.1150234
2.6952138 -1.1054271 -1.1159976
2.8075619 -1.0967691 -1.1071168
2.7819355 -1.156225 -1.0990611
2.8765585 -1.078343 -1.1210122
2.7300067 -1.1219827 -1.0975101
2.7051365 -1.0064095 -1.0986195
2.6908162 -1.0530788 -1.0935276
2.7235227 -1.0776879 -1.0989552
2.6819723 -1.1308831 -1.0992382
2.7574997 -1.0218244 -1.0977471
2.756639 -1.0486636 -1.0985544
2.7179353 -1.1486698 -1.0944428
2.7678416 -1.0599884 -1.0964988
2.5233142 -1.0237583 -1.0990502
2.6646602 -1.0932131 -1.1000575
2.6796205 -1.0605934 -1.0986952
2.5274241 -1.0187769 -1.0989206
2.5429003 -0.93435216 -1.1019032
2.5681877 -1.0505204 -1.1014867
2.6398771 -1.0853206 -1.0951822
2.6660216 -1.0362762 -1.0921797
2.550679 -0.98687297 -1.0975714
2.6778314 -0.98259968 -1.0947398
2.6423721 -1.0686882 -1.098395
2.642899 -1.0544665 -1.097501
2.6074238 -0.99358147 -1.1009793
2.5518739 -0.94906282 -1.1155922
2.6177716 -1.0753708 -1.1028639
2.5373349 -1.0070454 -1.1080226
2.5422335 -0.95160031 -1.11879
2.6655574 -1.0233135 -1.1197295
2.5577025 -1.0382415 -1.1173943
2.6125901 -1.0733087 -1.1030494
2.5092785 -0.97000676 -1.1177642
2.6565857 -1.0367986 -1.1185011
2.5101955 -0.96040386 -1.0943652
2.5196745 -0.97653824 -1.0969747
2.5462985 -1.0272906 -1.0983675
2.6511266 -1.0912538 -1.1213241
2.5830421 -0.99398541 -1.1179109
2.6365421 -0.97361243 -1.1218485
2.614387 -1.0608841 -1.1200441
2.6699545 -1.0222948 -1.0939547
2.5058441 -0.91536134 -1.0938101
2.5116673 -0.92794853 -1.0942891
2.594439 -0.98770624 -1.0954306
2.5953588 -1.0071708 -1.0961447
2.6026354 -0.95649725 -1.098443
2.5997806 -0.96257335 -1.0979651
2.5992236 -0.96128505 -1.0981929
2.5967169 -0.95875472 -1.0981719
2.6279871 -1.0072891 -1.1001005
2.6340261 -0.97573209 -1.0953413
2.6509626 -0.971807 -1.0992362
2.5622554 -0.97844869 -1.0960072
2.5445223 -0.92247891 -1.0997623
2.5515423 -0.92861849 -1.0984235
2.506855 -0.96320337 -1.0952308
2.6270528 -1.0429623 -1.1005647
2.6237986 -1.0125395 -1.1010978
2.6232746 -1.0497185 -1.1016066
2.5190883 -0.96565562 -1.1016366
2.5181735 -0.92942739 -1.0939852
2.5464277 -0.99957192 -1.0948031
2.5704148 -0.93416113 -1.0945467
2.5709674 -1.0500315 -1.0967088
2.5860035 -1.0427456 -1.0963092
2.5121791 -0.92085856 -1.115532
2.4846554 -0.98566133 -1.0987121
2.4736519 -0.92845428 -1.1002049
2.4704576 -0.88715953 -1.0915253
2.4241877 -0.88525265 -1.115983
2.469789 -0.94452137 -1.1097697
2.4641647 -0.93653655 -1.0954674
2.4197924 -0.90086579 -1.0997148
2.4578331 -0.96715015 -1.1026189
2.4482586 -0.98695314 -1.1167586
2.3968503 -0.88456172 -1.0940487
2.4561875 -0.96009988 -1.0934994
2.4022367 -0.92467225 -1.1176195
2.3204944 -0.9103775 -1.118566
2.3212335 -0.87072217 -1.1026008
2.3949807 -0.9484452 -1.1171292
2.3455148 -0.90460467 -1.1170419
2.359467 -0.95522243 -1.1021149
2.3752167 -0.93186337 -1.1017728
2.3503685 -0.89610445 -1.0973823
2.3276315 -0.86003482 -1.1206424
2.3291514 -0.84489286 -1.1053311
2.3033981 -0.90830112 -1.0940385
2.3052289 -0.92705297 -1.1175799
2.3504024 -0.93880641 -1.0955459
2.3453808 -0.89108962 -1.0953054
2.3591676 -0.85307097 -1.0941271
2.4190621 -0.9733519 -1.0988142
2.4440687 -0.96278125 -1.1010191
2.0247567 -0.73564631 -1.1000096
2.0246205 -0.72533315 -1.1014289
2.0458765 -0.74585545 -1.1011664
2.0828125 -0.71643013 -1.0998536
2.1220906 -0.76590246 -1.1002593
2.1766968 -0.80743623 -1.1019779
2.1808608 -0.77357417 -1.1011217
2.2611074 -0.81550694 -1.0996475
2.297271 -0.84884673 -1.0974931
2.2818835 -0.83313274 -1.1197337
2.2219391 -0.85962611 -1.117541
2.2809589 -0.81809509 -1.0946295
2.2290289 -0.80500466 -1.1019045
